-744047.18 -1043507.42 192.00
-744047.22 -1043514.08 191.83
-744047.92 -1043473.84 193.32
-744048.14 -1043481.81 192.49
-744048.17 -1043496.56 192.32
-744048.35 -1043507.22 191.65
-744048.24 -1043509.94 192.01
-744048.22 -1043512.61 192.07
-744049.14 -1043389.65 193.65
-744049.23 -1043429.06 193.17
-744049.24 -1043461.48 192.96
-744049.28 -1043477.60 192.75
-744049.49 -1043481.57 192.00
-744049.39 -1043482.95 192.36
-744049.35 -1043484.29 192.48
-744049.36 -1043486.97 192.45
-744049.42 -1043505.73 192.15
-744049.26 -1043541.86 192.56
-744049.26 -1043547.20 192.53
-744050.65 -1043419.39 192.76
-744050.68 -1043420.74 192.63
-744050.49 -1043428.98 193.29
-744050.56 -1043477.52 192.81
-744050.62 -1043484.21 192.56
-744050.70 -1043488.20 192.26
-744050.74 -1043516.33 192.02
-744050.54 -1043551.11 192.54
-744050.43 -1043587.10 192.78
-744051.67 -1043388.42 193.94
-744051.73 -1043392.48 193.71
-744051.79 -1043401.98 193.44
-744051.82 -1043404.70 193.34
-744051.76 -1043406.09 193.55
-744051.86 -1043411.47 193.16
-744052.04 -1043412.74 192.50
-744052.21 -1043415.37 191.91
-744051.93 -1043474.97 192.60
-744051.89 -1043476.31 192.76
-744051.90 -1043480.35 192.69
-744051.98 -1043484.33 192.39
-744051.97 -1043491.07 192.39
-744052.02 -1043508.46 192.15
-744051.80 -1043555.26 192.73
-744053.07 -1043422.13 192.70
-744053.20 -1043423.39 192.24
-744053.22 -1043424.75 192.15
-744053.07 -1043477.45 192.47
-744053.08 -1043482.82 192.41
-744052.99 -1043485.55 192.71
-744053.11 -1043496.22 192.26
-744054.07 -1043459.88 193.07
-744054.09 -1043540.28 192.62
-744055.53 -1043482.60 192.47
-744055.47 -1043486.64 192.67
-744055.55 -1043494.69 192.37
-744055.55 -1043508.08 192.31
-744055.43 -1043546.84 192.54
-744055.43 -1043550.86 192.54
-744056.78 -1043480.31 192.71
-744056.85 -1043481.62 192.46
-744056.87 -1043486.99 192.35
-744056.80 -1043491.03 192.61
-744056.89 -1043492.35 192.26
-744056.78 -1043500.43 192.61
-744056.90 -1043516.46 192.12
-744056.84 -1043523.17 192.30
-744056.72 -1043537.88 192.67
-744056.69 -1043555.25 192.71
-744056.60 -1043588.55 192.87
-744057.93 -1043495.15 192.40
-744057.95 -1043503.17 192.31
-744057.99 -1043513.88 192.12
-744057.92 -1043515.24 192.37
-744057.91 -1043519.24 192.38
-744058.87 -1043460.11 193.17
-744059.07 -1043494.97 192.32
-744058.94 -1043500.38 192.77
-744059.02 -1043515.08 192.42
-744059.08 -1043517.73 192.17
-744058.95 -1043540.45 192.55
-744058.87 -1043571.16 192.70
-744058.88 -1043575.13 192.66
-744060.31 -1043494.89 192.66
-744060.38 -1043496.21 192.42
-744060.41 -1043520.29 192.19
-744060.29 -1043545.72 192.51
-744060.21 -1043555.03 192.73
-744061.61 -1043519.15 192.52
-744061.68 -1043520.50 192.27
-744061.65 -1043523.18 192.34
-744061.61 -1043540.54 192.40
-744061.36 -1043585.88 193.09
-744062.52 -1043469.56 193.19
-744062.63 -1043523.12 192.54
-744062.58 -1043571.16 192.50
-744063.64 -1043458.65 193.27
-744063.73 -1043538.99 192.56
-744065.08 -1043539.93 192.39
-744066.30 -1043554.23 192.64
-744066.10 -1043590.18 193.16
-744067.36 -1043569.72 192.69
-744068.39 -1043458.21 193.32
-744068.51 -1043538.53 192.54
-744068.40 -1043574.54 192.77
-744069.82 -1043543.49 192.45
-744069.81 -1043548.83 192.46
-744070.93 -1043383.23 194.22
-744070.95 -1043387.30 194.12
-744070.94 -1043396.87 194.11
-744071.12 -1043554.02 192.64
-744071.95 -1043386.92 194.28
-744071.98 -1043392.37 194.14
-744071.96 -1043403.27 194.16
-744071.95 -1043429.03 194.05
-744071.95 -1043430.38 194.02
-744073.19 -1043454.28 193.47
-744073.22 -1043456.94 193.34
-744073.31 -1043535.95 192.68
-744073.35 -1043538.63 192.50
-744074.62 -1043543.55 192.44
-744074.61 -1043547.56 192.43
-744075.72 -1043387.50 194.24
-744075.74 -1043420.11 194.03
-744075.93 -1043552.85 192.61
-744076.76 -1043396.78 194.16
-744077.76 -1043371.70 194.39
-744077.79 -1043407.15 194.13
-744077.82 -1043416.64 193.97
-744077.89 -1043447.67 193.59
-744077.91 -1043457.11 193.48
-744077.89 -1043461.14 193.51
-744078.07 -1043537.39 192.54
-744079.51 -1043550.25 192.41
-744080.62 -1043430.98 193.80
-744080.70 -1043471.35 193.28
-744081.55 -1043382.00 194.53
-744081.52 -1043387.49 194.58
-744081.48 -1043388.86 194.72
-744081.57 -1043390.18 194.41
-744081.58 -1043391.54 194.37
-744081.57 -1043394.27 194.36
-744081.76 -1043476.60 193.27
-744081.83 -1043503.37 192.88
-744081.84 -1043507.37 192.83
-744081.88 -1043552.75 192.48
-744082.53 -1043370.85 194.73
-744082.54 -1043376.31 194.69
-744082.47 -1043381.83 194.91
-744082.41 -1043387.32 195.11
-744082.51 -1043391.36 194.74
-744082.62 -1043403.52 194.29
-744082.64 -1043406.24 194.20
-744082.68 -1043411.64 194.05
-744082.68 -1043415.73 194.00
-744082.70 -1043418.42 193.95
-744082.64 -1043419.79 194.16
-744082.66 -1043426.57 194.05
-744082.74 -1043446.76 193.67
-744082.76 -1043450.82 193.60
-744082.76 -1043456.21 193.55
-744082.83 -1043481.68 193.20
-744082.86 -1043487.03 193.09
-744082.92 -1043511.11 192.77
-744082.91 -1043517.80 192.77
-744082.94 -1043521.80 192.66
-744083.97 -1043404.43 194.26
-744084.02 -1043438.27 193.92
-744084.13 -1043466.47 193.40
-744084.20 -1043497.31 192.99
-744084.30 -1043532.02 192.46
-744084.31 -1043537.35 192.42
-744085.43 -1043425.87 193.82
-744085.39 -1043435.34 193.91
-744085.60 -1043511.81 192.76
-744085.64 -1043546.51 192.43
-744085.63 -1043551.83 192.44
-744086.54 -1043440.24 193.73
-744086.54 -1043455.07 193.68
-744086.62 -1043471.16 193.29
-744086.61 -1043476.53 193.30
-744086.64 -1043485.92 193.14
-744086.73 -1043522.01 192.63
-744086.73 -1043556.69 192.48
-744086.71 -1043562.01 192.50
-744087.46 -1043407.39 194.38
-744087.58 -1043450.58 193.73
-744087.60 -1043462.70 193.64
-744087.61 -1043466.72 193.57
-744087.61 -1043468.07 193.56
-744087.62 -1043470.74 193.51
-744087.71 -1043490.82 193.09
-744087.81 -1043526.90 192.61
-744087.83 -1043536.22 192.49
-744087.78 -1043566.90 192.52
-744087.78 -1043572.23 192.52
-744087.75 -1043586.86 192.54
-744087.72 -1043590.86 192.62
-744088.74 -1043407.12 194.64
-744088.75 -1043408.49 194.60
-744088.87 -1043409.78 194.16
-744088.90 -1043416.54 194.02
-744088.95 -1043430.05 193.77
-744088.97 -1043434.08 193.68
-744089.00 -1043455.66 193.48
-744088.97 -1043465.07 193.53
-744088.96 -1043467.75 193.56
-744088.95 -1043470.44 193.61
-744088.99 -1043474.47 193.45
-744089.01 -1043485.20 193.32
-744089.07 -1043495.88 193.03
-744089.08 -1043501.24 192.97
-744089.18 -1043533.27 192.50
-744089.14 -1043402.08 198.11
-744089.16 -1043403.44 198.05
-744089.94 -1043408.43 195.24
-744090.23 -1043410.99 194.20
-744090.40 -1043470.27 193.28
-744090.48 -1043506.40 192.83
-744090.53 -1043546.43 192.45
-744090.53 -1043551.77 192.44
-744090.46 -1043585.07 192.53
-744090.42 -1043587.73 192.64
-744090.42 -1043591.72 192.64
-744091.38 -1043428.06 193.96
-744091.61 -1043520.58 192.72
-744091.62 -1043556.60 192.49
-744091.61 -1043560.58 192.51
-744091.52 -1043580.55 192.74
-744091.53 -1043584.55 192.71
-744091.37 -1043401.22 198.19
-744091.52 -1043406.55 197.64
-744092.17 -1043411.61 195.29
-744092.51 -1043424.97 194.02
-744092.52 -1043429.05 193.96
-744092.54 -1043433.07 193.88
-744092.57 -1043438.46 193.75
-744092.58 -1043439.82 193.71
-744092.59 -1043449.24 193.62
-744092.70 -1043478.77 193.09
-744092.70 -1043485.48 193.09
-744092.71 -1043489.48 193.01
-744092.79 -1043530.90 192.58
-744092.89 -1043407.61 197.45
-744092.99 -1043408.91 197.08
-744093.38 -1043411.40 195.69
-744093.63 -1043428.86 194.73
-744093.90 -1043446.29 193.67
-744093.91 -1043447.62 193.64
-744093.91 -1043448.98 193.62
-744093.92 -1043453.01 193.57
-744094.05 -1043485.19 192.98
-744094.06 -1043489.21 192.91
-744094.07 -1043495.90 192.84
-744094.13 -1043535.97 192.47
-744094.13 -1043541.30 192.42
-744094.13 -1043405.21 198.13
-744095.23 -1043455.96 193.97
-744095.31 -1043459.96 193.69
-744095.54 -1043545.52 192.45
-744095.45 -1043576.19 192.60
-744095.45 -1043581.51 192.59
-744095.42 -1043590.81 192.65
-744096.24 -1043453.27 194.23
-744096.27 -1043460.00 194.10
-744096.61 -1043556.17 192.45
-744097.26 -1043449.25 194.84
-744097.40 -1043459.94 194.32
-744097.43 -1043462.62 194.19
-744097.49 -1043469.33 193.95
-744097.52 -1043472.00 193.83
-744097.58 -1043477.36 193.60
-744097.60 -1043478.67 193.52
-744097.71 -1043497.39 193.04
-744097.82 -1043529.42 192.53
-744097.76 -1043570.77 192.58
-744098.11 -1043373.69 196.97
-744097.74 -1043401.11 198.19
-744098.36 -1043444.01 195.76
-744099.10 -1043512.10 192.85
-744099.14 -1043406.84 198.23
-744099.29 -1043418.95 197.63
-744100.22 -1043492.46 193.96
-744100.54 -1043532.46 192.64
-744100.53 -1043568.46 192.50
-744100.48 -1043585.77 192.60
-744100.30 -1043390.75 197.94
-744100.30 -1043419.18 197.85
-744100.39 -1043432.63 197.46
-744101.22 -1043494.04 194.28
-744101.62 -1043539.34 192.66
-744101.65 -1043542.02 192.58
-744101.65 -1043547.34 192.54
-744101.67 -1043381.13 197.38
-744101.49 -1043392.12 198.00
-744101.47 -1043430.00 197.91
-744101.51 -1043435.36 197.77
-744102.24 -1043488.74 194.97
-744102.47 -1043507.38 194.07
-744102.52 -1043511.36 193.90
-744102.74 -1043547.34 192.97
-744102.82 -1043552.66 192.66
-744102.83 -1043558.01 192.61
-744103.15 -1043372.60 197.31
-744102.80 -1043408.14 198.42
-744102.94 -1043443.11 197.79
-744102.98 -1043448.46 197.64
-744103.30 -1043473.80 196.40
-744103.58 -1043493.76 195.30
-744103.65 -1043499.09 195.06
-744104.04 -1043535.04 193.53
-744104.12 -1043544.33 193.19
-744104.12 -1043553.69 193.16
-744104.19 -1043568.30 192.85
-744104.21 -1043580.30 192.72
-744104.27 -1043443.06 197.92
-744104.33 -1043455.12 197.68
-744104.36 -1043459.15 197.54
-744104.41 -1043463.11 197.34
-744104.66 -1043476.42 196.40
-744105.26 -1043531.02 194.06
-744105.36 -1043538.98 193.65
-744105.35 -1043540.31 193.68
-744105.42 -1043544.31 193.43
-744105.55 -1043589.57 192.76
-744105.64 -1043372.18 197.42
-744105.46 -1043387.30 198.04
-744105.53 -1043468.15 197.52
-744105.62 -1043474.79 197.19
-744106.12 -1043513.38 195.27
-744106.20 -1043518.69 194.97
-744106.48 -1043547.95 193.90
-744106.52 -1043554.60 193.74
-744106.53 -1043558.59 193.68
-744106.56 -1043565.24 193.55
-744106.50 -1043389.65 198.46
-744106.47 -1043392.36 198.53
-744106.43 -1043397.81 198.68
-744106.68 -1043462.33 197.61
-744106.72 -1043475.70 197.40
-744106.79 -1043483.70 197.15
-744106.83 -1043489.03 196.98
-744106.90 -1043493.03 196.72
-744106.95 -1043498.34 196.52
-744107.43 -1043536.88 194.68
-744107.62 -1043539.51 194.00
-744107.55 -1043546.18 194.25
-744107.74 -1043578.11 193.46
-744108.24 -1043376.98 197.70
-744107.93 -1043412.44 198.66
-744108.02 -1043417.78 198.35
-744108.10 -1043439.31 197.96
-744108.14 -1043443.33 197.81
-744108.19 -1043458.06 197.58
-744108.20 -1043484.81 197.46
-744108.20 -1043487.46 197.45
-744108.22 -1043490.14 197.36
-744108.23 -1043491.48 197.32
-744108.38 -1043503.43 196.77
-744108.70 -1043528.68 195.53
-744108.98 -1043539.28 194.49
-744108.93 -1043543.26 194.65
-744109.06 -1043572.51 194.10
-744109.62 -1043504.69 197.23
-744109.66 -1043508.68 197.05
-744110.24 -1043539.16 194.87
-744110.20 -1043540.53 195.00
-744110.26 -1043544.49 194.79
-744110.13 -1043545.85 195.24
-744110.11 -1043548.52 195.32
-744110.28 -1043564.45 194.66
-744110.27 -1043567.11 194.68
-744110.29 -1043569.77 194.61
-744110.36 -1043572.42 194.35
-744110.41 -1043391.71 198.85
-744110.43 -1043432.21 198.66
-744110.37 -1043434.94 198.86
-744110.72 -1043505.69 197.38
-744110.73 -1043509.69 197.35
-744111.28 -1043538.87 195.31
-744111.14 -1043546.88 195.78
-744111.32 -1043566.78 195.08
-744111.90 -1043581.39 192.98
-744111.94 -1043589.37 192.81
-744111.65 -1043387.38 198.71
-744111.49 -1043395.60 199.27
-744111.63 -1043433.33 198.67
-744111.58 -1043436.05 198.83
-744111.59 -1043437.37 198.78
-744111.61 -1043441.41 198.71
-744111.56 -1043444.12 198.89
-744111.91 -1043472.10 197.59
-744111.92 -1043477.44 197.51
-744111.94 -1043482.78 197.46
-744111.92 -1043517.44 197.43
-744112.01 -1043524.09 197.11
-744112.10 -1043533.38 196.73
-744112.19 -1043537.35 196.42
-744112.37 -1043542.64 195.76
-744112.43 -1043543.95 195.53
-744112.28 -1043545.32 196.06
-744112.23 -1043546.65 196.24
-744112.40 -1043558.59 195.62
-744112.43 -1043563.91 195.51
-744112.56 -1043567.88 195.04
-744112.90 -1043577.17 193.80
-744113.32 -1043376.23 197.88
-744113.31 -1043381.67 197.89
-744113.01 -1043390.02 198.94
-744112.99 -1043413.05 198.93
-744113.06 -1043417.05 198.67
-744113.14 -1043434.54 198.31
-744113.13 -1043437.24 198.35
-744112.98 -1043444.01 198.87
-744113.05 -1043446.66 198.60
-744113.01 -1043452.03 198.74
-744113.11 -1043454.68 198.36
-744113.03 -1043456.07 198.65
-744113.03 -1043457.39 198.67
-744113.01 -1043458.75 198.73
-744113.12 -1043460.04 198.33
-744113.09 -1043461.40 198.43
-744113.21 -1043472.05 197.95
-744113.30 -1043482.73 197.60
-744113.35 -1043492.02 197.42
-744113.34 -1043529.33 197.31
-744113.34 -1043530.66 197.31
-744113.40 -1043535.97 197.09
-744113.45 -1043537.29 196.93
-744113.67 -1043538.59 196.12
-744113.64 -1043539.92 196.22
-744113.53 -1043549.25 196.59
-744113.54 -1043551.91 196.54
-744113.67 -1043558.52 196.07
-744114.12 -1043573.11 194.42
-744114.34 -1043389.16 199.25
-744114.45 -1043417.54 198.77
-744114.46 -1043456.50 198.63
-744114.52 -1043457.84 198.42
-744114.48 -1043463.20 198.56
-744114.48 -1043467.21 198.54
-744114.46 -1043468.57 198.60
-744114.47 -1043469.88 198.57
-744114.76 -1043525.80 197.41
-744115.08 -1043539.04 196.24
-744115.02 -1043540.39 196.44
-744115.03 -1043543.05 196.38
-744114.85 -1043551.05 197.02
-744114.92 -1043553.69 196.77
-744115.00 -1043557.67 196.47
-744115.04 -1043558.99 196.34
-744115.46 -1043576.23 194.78
-744115.54 -1043577.56 194.50
-744115.85 -1043386.42 198.09
-744115.51 -1043392.06 199.27
-744115.43 -1043412.38 199.53
-744115.74 -1043436.48 198.36
-744115.75 -1043457.94 198.25
-744115.63 -1043468.70 198.65
-744115.70 -1043470.02 198.40
-744115.77 -1043472.65 198.13
-744115.70 -1043482.03 198.35
-744115.79 -1043490.01 198.02
-744115.80 -1043491.35 197.99
-744115.94 -1043507.29 197.44
-744116.09 -1043540.52 196.84
-744116.06 -1043555.15 196.91
-744116.46 -1043567.06 195.43
-744116.70 -1043577.67 194.57
-744116.81 -1043579.00 194.16
-744117.03 -1043580.33 193.39
-744117.15 -1043581.66 192.97
-744116.70 -1043401.66 199.55
-744116.69 -1043416.52 199.54
-744116.80 -1043420.53 199.16
-744116.92 -1043428.54 198.70
-744116.95 -1043432.57 198.59
-744116.96 -1043435.25 198.53
-744117.01 -1043447.33 198.34
-744116.96 -1043482.15 198.43
-744116.90 -1043484.83 198.63
-744116.97 -1043488.81 198.36
-744117.03 -1043498.13 198.13
-744117.08 -1043502.12 197.95
-744117.22 -1043522.05 197.40
-744117.25 -1043538.01 197.25
-744117.26 -1043541.96 197.20
-744117.40 -1043557.90 196.66
-744117.63 -1043568.49 195.83
-744117.68 -1043575.15 195.63
-744118.29 -1043580.46 193.42
-744118.43 -1043587.09 192.93
-744118.43 -1043592.42 192.90
-744118.52 -1043377.05 197.88
-744118.46 -1043385.27 198.08
-744118.19 -1043434.06 198.91
-744118.32 -1043444.76 198.41
-744118.27 -1043484.93 198.50
-744118.34 -1043487.57 198.26
-744118.35 -1043491.59 198.21
-744118.30 -1043498.25 198.37
-744118.43 -1043516.84 197.84
-744118.58 -1043532.78 197.27
-744118.79 -1043564.65 196.45
-744118.83 -1043572.60 196.29
-744118.85 -1043576.62 196.22
-744119.71 -1043588.53 193.10
-744119.68 -1043591.21 193.21
-744119.39 -1043390.13 199.73
-744119.36 -1043426.65 199.74
-744119.64 -1043446.67 198.71
-744119.72 -1043456.05 198.43
-744119.75 -1043508.08 198.23
-744119.85 -1043526.70 197.82
-744119.96 -1043537.31 197.40
-744120.06 -1043561.21 197.02
-744120.10 -1043567.86 196.85
-744120.20 -1043579.78 196.49
-744120.46 -1043429.71 200.10
-744120.67 -1043443.05 199.31
-744120.71 -1043445.72 199.17
-744120.87 -1043461.73 198.57
-744120.87 -1043465.77 198.56
-744120.85 -1043509.77 198.54
-744120.98 -1043528.37 198.04
-744121.02 -1043532.37 197.90
-744121.17 -1043552.25 197.34
-744121.16 -1043560.22 197.36
-744121.17 -1043562.89 197.31
-744121.18 -1043566.86 197.26
-744121.18 -1043568.19 197.26
-744121.18 -1043576.16 197.23
-744121.18 -1043577.49 197.24
-744122.13 -1043586.75 193.84
-744121.91 -1043397.42 199.69
-744121.90 -1043401.48 199.74
-744121.50 -1043428.65 201.10
-744122.01 -1043455.25 199.21
-744122.06 -1043457.91 199.02
-744122.06 -1043459.25 199.01
-744122.11 -1043464.60 198.84
-744122.26 -1043475.23 198.29
-744122.26 -1043481.90 198.27
-744122.19 -1043485.95 198.50
-744122.25 -1043491.27 198.27
-744122.28 -1043508.56 198.14
-744122.19 -1043516.56 198.41
-744122.28 -1043527.19 198.08
-744122.29 -1043536.48 198.01
-744122.39 -1043544.43 197.64
-744122.43 -1043563.01 197.48
-744122.43 -1043567.00 197.47
-744122.58 -1043580.25 196.87
-744123.72 -1043376.64 197.92
-744123.71 -1043380.71 197.97
-744123.67 -1043384.83 198.08
-744122.61 -1043416.51 201.78
-744122.77 -1043432.57 201.18
-744123.47 -1043472.45 198.60
-744123.54 -1043473.79 198.35
-744123.55 -1043475.11 198.31
-744123.55 -1043476.46 198.33
-744123.53 -1043487.14 198.36
-744123.56 -1043493.80 198.23
-744123.53 -1043497.81 198.34
-744123.58 -1043515.08 198.12
-744123.59 -1043516.44 198.11
-744123.66 -1043539.01 197.80
-744123.76 -1043577.48 197.37
-744123.89 -1043580.14 196.91
-744124.98 -1043385.06 198.40
-744124.81 -1043386.52 199.02
-744124.61 -1043387.99 199.73
-744123.95 -1043416.72 202.00
-744124.14 -1043436.79 201.29
-744124.32 -1043459.48 200.61
-744124.87 -1043490.00 198.62
-744124.93 -1043497.99 198.40
-744124.98 -1043507.30 198.18
-744124.90 -1043508.63 198.47
-744124.99 -1043517.94 198.12
-744125.00 -1043525.91 198.10
-744125.02 -1043544.50 197.98
-744125.05 -1043547.16 197.86
-744125.11 -1043415.38 202.19
-744125.10 -1043422.10 202.22
-744125.35 -1043452.84 201.27
-744125.44 -1043454.13 200.93
-744125.59 -1043466.12 200.37
-744125.70 -1043470.07 199.99
-744125.99 -1043490.00 198.92
-744126.17 -1043512.58 198.25
-744126.09 -1043519.26 198.51
-744126.19 -1043520.56 198.17
-744126.20 -1043525.86 198.10
-744126.22 -1043539.15 198.01
-744126.28 -1043557.73 197.78
-744126.35 -1043569.69 197.50
-744127.50 -1043376.76 198.05
-744126.82 -1043400.22 200.42
-744126.82 -1043405.62 200.39
-744126.27 -1043427.44 202.31
-744126.26 -1043431.47 202.33
-744126.74 -1043474.08 200.55
-744127.18 -1043500.59 198.94
-744127.23 -1043505.89 198.76
-744127.32 -1043515.21 198.43
-744127.31 -1043516.53 198.44
-744127.35 -1043521.83 198.29
-744127.37 -1043524.48 198.21
-744127.30 -1043525.84 198.48
-744127.38 -1043527.14 198.20
-744127.33 -1043528.50 198.35
-744127.40 -1043539.10 198.09
-744127.51 -1043568.29 197.63
-744128.89 -1043376.91 198.06
-744128.87 -1043379.63 198.11
-744128.79 -1043385.13 198.40
-744128.30 -1043392.19 200.15
-744128.11 -1043412.59 200.78
-744127.67 -1043435.64 202.31
-744127.66 -1043442.36 202.35
-744128.32 -1043491.50 199.94
-744128.69 -1043523.33 198.60
-744128.69 -1043524.68 198.57
-744128.73 -1043528.63 198.45
-744128.76 -1043531.29 198.33
-744128.81 -1043536.60 198.15
-744128.72 -1043539.27 198.47
-744128.82 -1043549.87 198.07
-744128.87 -1043571.09 197.88
-744128.94 -1043576.40 197.61
-744130.08 -1043378.66 198.68
-744130.26 -1043381.27 198.04
-744130.14 -1043384.07 198.49
-744129.13 -1043417.08 202.02
-744129.06 -1043422.49 202.26
-744129.44 -1043489.17 200.78
-744129.93 -1043524.93 198.98
-744130.00 -1043538.20 198.72
-744129.98 -1043539.54 198.81
-744129.99 -1043540.86 198.76
-744130.11 -1043543.50 198.32
-744130.15 -1043546.16 198.19
-744130.16 -1043548.80 198.14
-744130.13 -1043574.00 198.18
-744130.20 -1043576.65 197.95
-744130.43 -1043579.30 197.11
-744130.71 -1043394.04 200.72
-744130.69 -1043399.46 200.79
-744130.42 -1043415.78 201.71
-744130.27 -1043423.94 202.24
-744130.31 -1043425.26 202.07
-744130.40 -1043485.36 201.68
-744130.97 -1043523.76 199.60
-744131.07 -1043537.01 199.22
-744131.03 -1043539.67 199.35
-744131.06 -1043564.87 199.23
-744131.02 -1043566.18 199.35
-744131.02 -1043567.51 199.37
-744131.08 -1043570.17 199.13
-744131.14 -1043572.80 198.94
-744131.46 -1043376.68 202.10
-744131.44 -1043378.04 202.17
-744131.40 -1043380.77 202.30
-744131.79 -1043402.22 200.88
-744131.71 -1043413.05 201.17
-744131.73 -1043414.39 201.10
-744131.39 -1043440.08 202.29
-744131.35 -1043466.81 202.37
-744131.61 -1043496.02 201.45
-744131.80 -1043514.57 200.74
-744132.04 -1043530.45 199.89
-744132.19 -1043542.37 199.33
-744132.14 -1043543.70 199.50
-744132.15 -1043545.02 199.47
-744132.22 -1043546.33 199.21
-744132.07 -1043568.88 199.72
-744132.08 -1043570.20 199.69
-744132.10 -1043571.54 199.63
-744132.20 -1043572.83 199.27
-744132.84 -1043385.08 202.28
-744132.88 -1043386.42 202.15
-744133.24 -1043391.63 200.85
-744132.83 -1043444.31 202.26
-744132.81 -1043453.68 202.31
-744132.81 -1043461.71 202.31
-744132.76 -1043473.71 202.46
-744132.76 -1043487.01 202.46
-744132.78 -1043493.65 202.37
-744132.82 -1043497.64 202.24
-744133.58 -1043565.14 199.45
-744133.47 -1043573.10 199.85
-744133.43 -1043574.41 199.97
-744133.45 -1043575.73 199.90
-744133.56 -1043577.05 199.51
-744134.23 -1043385.79 202.37
-744134.39 -1043420.82 201.77
-744134.17 -1043482.42 202.42
-744134.15 -1043495.72 202.47
-744134.15 -1043498.37 202.49
-744134.57 -1043539.38 200.91
-744134.59 -1043540.71 200.85
-744134.67 -1043542.02 200.58
-744134.55 -1043543.37 201.00
-744134.60 -1043548.67 200.80
-744134.79 -1043567.17 200.11
-744134.82 -1043568.50 199.97
-744134.82 -1043569.82 199.97
-744134.80 -1043571.14 200.05
-744134.76 -1043572.48 200.20
-744134.72 -1043573.79 200.33
-744134.68 -1043575.14 200.47
-744134.72 -1043576.43 200.32
-744134.81 -1043579.08 200.00
-744137.26 -1043371.44 195.65
-744135.44 -1043373.95 202.11
-744135.36 -1043386.20 202.37
-744135.70 -1043404.94 201.17
-744135.40 -1043429.33 202.18
-744135.39 -1043434.70 202.20
-744135.34 -1043464.13 202.32
-744135.28 -1043504.06 202.49
-744135.54 -1043538.46 201.49
-744135.57 -1043541.10 201.39
-744135.52 -1043546.41 201.58
-744135.59 -1043547.74 201.30
-744135.70 -1043560.96 200.90
-744135.86 -1043572.85 200.30
-744135.83 -1043574.18 200.42
-744135.75 -1043576.82 200.70
-744139.05 -1043369.97 193.29
-744137.11 -1043372.57 200.18
-744136.52 -1043374.29 202.28
-744136.51 -1043378.39 202.32
-744136.72 -1043387.74 201.55
-744136.50 -1043439.04 202.26
-744136.47 -1043469.80 202.36
-744136.45 -1043479.12 202.43
-744136.45 -1043532.21 202.38
-744136.72 -1043537.48 201.42
-744136.62 -1043538.81 201.78
-744136.63 -1043540.13 201.72
-744136.73 -1043541.44 201.37
-744136.54 -1043546.76 202.05
-744136.72 -1043563.95 201.39
-744136.88 -1043575.84 200.82
-744136.88 -1043577.18 200.81
-744138.48 -1043368.90 200.10
-744137.90 -1043373.32 202.14
-744137.85 -1043448.81 202.24
-744137.84 -1043454.14 202.27
-744137.81 -1043474.16 202.37
-744137.80 -1043484.83 202.40
-744137.69 -1043535.25 202.73
-744137.89 -1043537.87 202.02
-744137.79 -1043539.20 202.37
-744137.85 -1043541.83 202.13
-744137.62 -1043545.84 202.95
-744137.64 -1043549.78 202.88
-744137.75 -1043556.38 202.47
-744137.85 -1043561.68 202.14
-744137.78 -1043565.64 202.36
-744137.87 -1043566.98 202.05
-744137.94 -1043573.58 201.81
-744138.01 -1043574.89 201.54
-744139.23 -1043385.12 202.66
-744139.40 -1043424.14 202.02
-744139.31 -1043458.99 202.28
-744139.26 -1043493.65 202.40
-744139.05 -1043520.23 203.12
-744138.93 -1043532.15 203.53
-744138.97 -1043534.80 203.37
-744139.07 -1043538.75 203.03
-744138.88 -1043546.72 203.68
-744138.89 -1043549.37 203.63
-744138.89 -1043552.00 203.65
-744138.88 -1043553.33 203.65
-744138.96 -1043558.60 203.36
-744139.12 -1043571.81 202.80
-744139.22 -1043577.09 202.42
-744140.46 -1043384.47 202.62
-744140.56 -1043428.89 202.18
-744140.49 -1043469.05 202.31
-744140.45 -1043498.31 202.39
-744140.12 -1043539.47 203.50
-744139.97 -1043559.30 203.99
-744140.02 -1043564.58 203.79
-744140.26 -1043576.46 202.91
-744141.70 -1043387.57 202.18
-744141.67 -1043438.74 202.23
-744141.65 -1043444.10 202.26
-744141.62 -1043473.48 202.34
-744141.61 -1043478.80 202.36
-744141.18 -1043534.59 203.76
-744141.26 -1043537.22 203.48
-744141.15 -1043538.58 203.89
-744141.04 -1043545.18 204.26
-744140.98 -1043549.18 204.48
-744140.92 -1043551.81 204.69
-744140.99 -1043561.04 204.42
-744141.05 -1043570.29 204.16
-744141.10 -1043572.91 204.00
-744141.19 -1043576.86 203.67
-744141.30 -1043579.49 203.29
-744141.29 -1043580.83 203.31
-744141.37 -1043582.14 203.00
-744143.06 -1043407.94 201.90
-744143.06 -1043413.34 201.92
-744143.04 -1043417.39 201.96
-744143.00 -1043421.43 202.11
-744142.95 -1043448.26 202.22
-744142.94 -1043453.61 202.25
-744142.89 -1043488.27 202.36
-744142.92 -1043514.80 202.22
-744142.43 -1043530.79 203.93
-744142.27 -1043538.76 204.50
-744142.16 -1043561.21 204.86
-744142.20 -1043563.83 204.70
-744142.21 -1043567.80 204.65
-744142.17 -1043571.77 204.78
-744142.24 -1043573.07 204.54
-744142.42 -1043580.98 203.88
-744142.45 -1043583.61 203.77
-744144.58 -1043371.80 201.62
-744144.43 -1043400.35 202.12
-744144.52 -1043409.72 201.77
-744144.48 -1043413.81 201.91
-744144.37 -1043463.40 202.23
-744143.75 -1043524.65 204.31
-744143.82 -1043529.93 204.06
-744143.37 -1043549.81 205.61
-744143.56 -1043581.43 204.86
-744143.71 -1043584.07 204.34
-744143.70 -1043585.39 204.38
-744143.94 -1043592.00 203.50
-744145.50 -1043468.90 202.26
-744144.80 -1043527.47 204.64
-744144.85 -1043531.42 204.45
-744144.72 -1043535.41 204.88
-744144.71 -1043536.71 204.93
-744144.56 -1043539.38 205.44
-744144.28 -1043560.52 206.41
-744144.39 -1043575.01 206.00
-744146.73 -1043414.13 202.30
-744146.75 -1043438.27 202.17
-744146.74 -1043443.63 202.18
-744146.69 -1043473.01 202.29
-744146.69 -1043478.34 202.31
-744146.68 -1043514.18 202.23
-744145.77 -1043535.51 205.43
-744145.61 -1043544.79 205.97
-744145.35 -1043565.89 206.86
-744145.49 -1043580.37 206.30
-744145.79 -1043589.58 205.21
-744148.01 -1043407.57 202.35
-744148.08 -1043410.23 202.09
-744147.96 -1043411.63 202.49
-744147.98 -1043412.97 202.42
-744148.09 -1043415.61 202.03
-744148.03 -1043453.17 202.16
-744147.96 -1043483.82 202.32
-744147.96 -1043487.83 202.32
-744147.32 -1043523.75 204.50
-744147.25 -1043527.76 204.76
-744146.99 -1043534.39 205.67
-744146.81 -1043547.59 206.25
-744146.65 -1043580.55 206.76
-744146.76 -1043583.19 206.36
-744146.99 -1043591.08 205.51
-744149.31 -1043372.57 202.69
-744149.48 -1043410.33 201.98
-744149.30 -1043413.11 202.62
-744149.29 -1043414.45 202.63
-744149.45 -1043415.72 202.05
-744149.43 -1043418.42 202.14
-744149.38 -1043462.63 202.18
-744149.32 -1043493.22 202.31
-744149.31 -1043498.55 202.33
-744148.64 -1043522.53 204.67
-744148.59 -1043523.87 204.83
-744148.57 -1043525.19 204.90
-744148.64 -1043527.82 204.63
-744148.09 -1043537.16 206.57
-744148.12 -1043538.45 206.45
-744148.04 -1043539.80 206.72
-744147.56 -1043563.56 208.38
-744147.56 -1043566.18 208.35
-744147.81 -1043581.94 207.44
-744150.38 -1043371.19 202.88
-744150.24 -1043373.99 203.35
-744150.15 -1043378.13 203.67
-744150.13 -1043382.18 203.74
-744150.24 -1043387.54 203.33
-744150.34 -1043395.59 202.96
-744150.37 -1043414.42 202.77
-744150.57 -1043415.69 202.07
-744150.57 -1043417.00 202.05
-744150.55 -1043418.37 202.12
-744150.55 -1043431.79 202.08
-744150.43 -1043503.81 202.31
-744149.71 -1043529.08 204.78
-744149.12 -1043592.39 206.70
-744151.39 -1043384.79 203.51
-744151.54 -1043411.68 202.90
-744151.71 -1043422.35 202.25
-744151.74 -1043429.03 202.14
-744151.75 -1043437.07 202.07
-744151.74 -1043442.42 202.08
-744151.68 -1043458.48 202.27
-744151.68 -1043473.15 202.23
-744151.67 -1043477.14 202.23
-744151.63 -1043513.02 202.25
-744150.91 -1043527.71 204.79
-744149.71 -1043556.84 208.94
-744149.53 -1043570.00 209.58
-744149.70 -1043579.19 208.91
-744153.07 -1043410.38 202.12
-744152.84 -1043411.82 202.93
-744152.83 -1043417.20 202.93
-744153.08 -1043430.50 202.00
-744153.03 -1043447.93 202.11
-744153.02 -1043451.95 202.15
-744153.04 -1043462.61 202.05
-744152.96 -1043482.62 202.24
-744152.95 -1043487.95 202.27
-744152.09 -1043523.90 205.21
-744150.93 -1043553.03 209.24
-744150.68 -1043566.19 210.08
-744150.61 -1043567.53 210.30
-744150.60 -1043568.82 210.36
-744150.58 -1043574.08 210.40
-744150.60 -1043575.39 210.33
-744154.19 -1043404.34 202.94
-744154.39 -1043449.85 202.04
-744154.29 -1043455.22 202.39
-744154.34 -1043463.21 202.15
-744154.35 -1043467.20 202.12
-744154.31 -1043475.19 202.24
-744154.31 -1043476.54 202.23
-744154.27 -1043497.80 202.29
-744154.18 -1043513.75 202.55
-744153.89 -1043516.45 203.57
-744153.89 -1043517.76 203.55
-744153.88 -1043519.10 203.60
-744153.68 -1043520.45 204.28
-744153.02 -1043531.13 206.60
-744152.63 -1043533.83 207.98
-744152.49 -1043535.17 208.44
-744152.36 -1043537.82 208.92
-744152.20 -1043548.37 209.45
-744151.81 -1043561.55 210.78
-744155.06 -1043370.97 203.91
-744155.28 -1043418.08 202.95
-744155.39 -1043462.17 202.37
-744155.26 -1043464.88 202.83
-744155.34 -1043476.82 202.49
-744155.39 -1043478.15 202.32
-744155.40 -1043482.14 202.27
-744155.41 -1043488.79 202.21
-744155.40 -1043492.76 202.24
-744155.36 -1043507.37 202.28
-744155.30 -1043511.35 202.50
-744155.24 -1043512.69 202.70
-744154.90 -1043518.06 203.90
-744154.81 -1043519.39 204.21
-744154.50 -1043522.10 205.31
-744153.55 -1043535.44 208.63
-744152.71 -1043567.04 211.51
-744152.65 -1043572.29 211.71
-744156.04 -1043369.99 204.47
-744157.56 -1043369.03 199.03
-744156.05 -1043383.52 204.37
-744156.26 -1043396.90 203.56
-744156.47 -1043487.76 202.41
-744156.46 -1043489.09 202.46
-744156.51 -1043495.72 202.25
-744156.49 -1043498.40 202.29
-744156.47 -1043502.35 202.34
-744156.46 -1043503.69 202.36
-744156.46 -1043505.02 202.36
-744154.62 -1043534.44 208.81
-744154.59 -1043535.76 208.90
-744154.52 -1043538.40 209.14
-744154.34 -1043542.37 209.77
-744154.18 -1043546.35 210.30
-744155.67 -1043539.98 209.86
-744155.21 -1043550.55 211.44
-744154.83 -1043566.31 212.74
-744154.72 -1043575.47 213.10
-744154.94 -1043578.10 212.28
-744154.94 -1043579.40 212.27
-744155.03 -1043580.72 211.97
-744155.31 -1043591.21 210.91
-744158.54 -1043369.64 205.24
-744158.42 -1043506.04 204.92
-744157.47 -1043530.00 208.16
-744156.66 -1043544.58 210.97
-744156.57 -1043547.22 211.28
-744156.43 -1043549.86 211.77
-744155.78 -1043576.11 213.95
-744156.13 -1043582.65 212.65
-744159.74 -1043386.23 204.67
-744159.98 -1043402.29 203.75
-744160.16 -1043459.77 202.78
-744160.21 -1043461.09 202.59
-744159.19 -1043505.18 205.98
-744158.42 -1043529.09 208.58
-744157.91 -1043537.04 210.35
-744157.77 -1043538.39 210.84
-744157.27 -1043592.18 212.31
-744160.63 -1043371.59 205.60
-744160.87 -1043390.36 204.67
-744161.06 -1043401.03 203.92
-744158.94 -1043534.51 210.72
-744158.80 -1043537.14 211.20
-744157.95 -1043562.13 214.08
-744162.01 -1043370.04 205.69
-744161.24 -1043493.24 207.63
-744159.75 -1043542.21 212.60
-744159.08 -1043560.61 214.86
-744159.02 -1043561.93 215.06
-744159.07 -1043565.85 214.85
-744159.00 -1043578.94 215.03
-744159.31 -1043592.02 213.84
-744164.14 -1043410.17 202.60
-744164.03 -1043412.92 202.98
-744164.03 -1043415.60 202.94
-744162.14 -1043510.62 208.99
-744160.16 -1043560.76 215.67
-744160.03 -1043568.60 216.07
-744164.46 -1043380.81 205.35
-744161.17 -1043556.70 215.82
-744161.15 -1043559.32 215.89
-744161.08 -1043586.74 215.93
-744161.31 -1043591.97 215.08
-744165.49 -1043371.28 205.96
-744166.27 -1043409.90 202.89
-744164.36 -1043491.86 209.11
-744164.09 -1043502.47 210.01
-744164.09 -1043505.12 209.98
-744164.04 -1043506.43 210.13
-744164.04 -1043516.95 210.07
-744162.83 -1043542.09 214.20
-744161.78 -1043576.14 217.70
-744161.91 -1043578.74 217.19
-744162.20 -1043589.20 216.09
-744166.90 -1043371.09 205.71
-744166.93 -1043394.01 205.42
-744167.51 -1043461.97 202.76
-744165.34 -1043499.70 210.17
-744164.60 -1043528.78 212.59
-744164.49 -1043531.43 212.94
-744164.11 -1043538.03 214.25
-744163.86 -1043544.60 215.06
-744163.38 -1043553.80 216.71
-744163.15 -1043561.64 217.47
-744162.82 -1043573.40 218.55
-744162.97 -1043579.92 217.96
-744163.02 -1043583.82 217.72
-744163.17 -1043589.05 217.14
-744163.35 -1043591.67 216.48
-744166.38 -1043504.90 211.14
-744166.23 -1043507.56 211.62
-744166.05 -1043524.67 212.14
-744164.70 -1043551.03 216.72
-744164.57 -1043553.65 217.16
-744164.01 -1043573.24 218.97
-744163.94 -1043574.54 219.22
-744164.02 -1043578.46 218.91
-744164.25 -1043588.89 217.99
-744164.39 -1043591.51 217.49
-744169.98 -1043414.75 202.84
-744167.49 -1043495.38 211.00
-744167.35 -1043496.73 211.50
-744167.23 -1043502.03 211.88
-744167.23 -1043504.65 211.84
-744167.23 -1043505.98 211.84
-744167.21 -1043507.30 211.90
-744167.12 -1043511.25 212.18
-744166.24 -1043537.62 215.09
-744165.77 -1043546.82 216.69
-744165.59 -1043550.77 217.32
-744165.29 -1043557.30 218.31
-744164.87 -1043572.95 219.67
-744164.89 -1043575.57 219.58
-744164.99 -1043579.48 219.21
-744165.03 -1043580.77 219.06
-744165.01 -1043582.10 219.11
-744170.37 -1043389.44 205.76
-744171.13 -1043414.56 202.83
-744171.12 -1043415.92 202.87
-744168.53 -1043493.94 211.40
-744168.38 -1043496.59 211.89
-744168.36 -1043500.54 211.94
-744168.24 -1043501.89 212.35
-744168.21 -1043504.53 212.45
-744168.16 -1043507.18 212.59
-744167.49 -1043532.19 214.76
-744166.86 -1043545.34 216.89
-744166.80 -1043546.69 217.10
-744166.13 -1043589.73 219.08
-744166.25 -1043592.33 218.64
-744171.94 -1043410.77 204.63
-744172.10 -1043421.39 203.98
-744172.09 -1043422.74 203.97
-744172.38 -1043429.29 202.90
-744172.38 -1043433.32 202.85
-744172.28 -1043458.69 202.95
-744167.74 -1043547.99 218.27
-744167.45 -1043555.86 219.22
-744166.93 -1043578.00 220.86
-744166.97 -1043579.31 220.71
-744172.89 -1043369.66 206.52
-744173.34 -1043428.53 204.30
-744173.31 -1043431.21 204.39
-744173.71 -1043440.40 202.88
-744173.70 -1043444.40 202.86
-744173.67 -1043447.07 202.93
-744173.64 -1043460.42 202.92
-744170.39 -1043510.24 214.00
-744169.45 -1043537.88 217.05
-744169.26 -1043541.84 217.69
-744168.82 -1043549.71 219.18
-744168.35 -1043562.76 220.73
-744168.03 -1043574.46 221.74
-744168.34 -1043587.48 220.50
-744168.33 -1043588.79 220.54
-744168.40 -1043591.39 220.26
-744173.95 -1043369.69 206.44
-744174.02 -1043379.06 206.10
-744173.99 -1043397.93 206.01
-744174.33 -1043447.26 204.31
-744174.69 -1043459.10 202.91
-744171.61 -1043499.68 213.46
-744168.98 -1043574.46 222.10
-744168.99 -1043578.36 222.01
-744169.29 -1043588.76 220.87
-744175.13 -1043393.91 206.27
-744175.48 -1043453.91 204.38
-744175.45 -1043457.92 204.43
-744173.54 -1043479.74 211.00
-744173.55 -1043481.06 210.97
-744173.14 -1043491.71 212.31
-744172.61 -1043504.97 214.04
-744171.61 -1043532.65 217.29
-744170.89 -1043547.10 219.71
-744170.12 -1043570.58 222.22
-744170.10 -1043580.96 222.16
-744176.40 -1043460.58 205.48
-744174.85 -1043479.63 210.77
-744174.81 -1043480.95 210.91
-744174.75 -1043482.30 211.11
-744174.33 -1043491.63 212.51
-744174.07 -1043498.27 213.34
-744173.81 -1043504.89 214.22
-744172.64 -1043533.89 218.08
-744171.13 -1043580.86 222.92
-744171.29 -1043586.06 222.30
-744171.36 -1043588.64 222.01
-744177.71 -1043398.19 206.20
-744177.70 -1043400.88 206.20
-744177.64 -1043403.61 206.39
-744177.35 -1043430.47 207.11
-744175.98 -1043481.33 211.41
-744174.83 -1043510.53 215.15
-744174.49 -1043519.75 216.27
-744174.37 -1043522.39 216.67
-744173.88 -1043532.91 218.30
-744172.21 -1043578.59 223.72
-744172.28 -1043582.46 223.43
-744178.83 -1043378.17 206.44
-744178.82 -1043398.35 206.25
-744178.74 -1043401.06 206.51
-744178.80 -1043402.38 206.28
-744178.75 -1043403.74 206.45
-744176.24 -1043498.78 214.28
-744175.16 -1043529.09 217.79
-744175.02 -1043533.04 218.25
-744174.70 -1043539.59 219.29
-744174.58 -1043542.20 219.70
-744174.18 -1043551.38 221.01
-744173.05 -1043573.51 224.79
-744173.06 -1043577.41 224.70
-744179.80 -1043386.21 207.11
-744179.42 -1043426.56 207.92
-744179.35 -1043450.52 207.88
-744179.39 -1043451.84 207.72
-744178.57 -1043471.97 210.39
-744177.92 -1043481.43 212.57
-744176.54 -1043521.09 217.02
-744175.83 -1043539.47 219.32
-744175.54 -1043546.01 220.26
-744175.30 -1043551.24 221.07
-744174.99 -1043557.78 222.10
-744174.26 -1043568.18 224.56
-744174.01 -1043574.67 225.36
-744181.10 -1043395.31 207.14
-744181.21 -1043397.93 206.71
-744181.23 -1043399.27 206.64
-744180.79 -1043418.23 207.97
-744180.44 -1043447.65 208.81
-744180.42 -1043451.61 208.83
-744179.95 -1043468.99 210.30
-744179.10 -1043479.82 213.17
-744178.94 -1043482.48 213.72
-744177.66 -1043524.70 217.75
-744177.37 -1043531.27 218.67
-744175.35 -1043567.87 225.42
-744175.30 -1043570.45 225.55
-744175.37 -1043580.83 225.16
-744175.53 -1043585.99 224.52
-744182.37 -1043381.86 207.24
-744182.29 -1043393.97 207.36
-744182.32 -1043400.68 207.16
-744182.25 -1043404.71 207.35
-744181.92 -1043423.57 208.27
-744181.93 -1043427.57 208.18
-744181.94 -1043430.24 208.14
-744181.56 -1043446.32 209.24
-744180.78 -1043470.41 211.73
-744179.57 -1043495.74 215.68
-744177.55 -1043556.09 222.11
-744176.34 -1043573.01 226.18
-744182.91 -1043434.10 208.66
-744182.73 -1043447.45 209.12
-744182.66 -1043451.44 209.34
-744179.21 -1043537.65 220.49
-744178.63 -1043553.32 222.35
-744178.64 -1043554.61 222.29
-744178.60 -1043555.92 222.41
-744177.43 -1043567.64 226.43
-744177.28 -1043575.41 226.85
-744177.50 -1043581.90 225.98
-744181.25 -1043507.32 217.72
-744179.72 -1043553.13 222.52
-744179.59 -1043554.46 222.97
-744178.64 -1043566.17 226.18
-744178.29 -1043577.85 227.26
-744178.83 -1043590.81 225.16
-744182.55 -1043497.94 217.92
-744182.47 -1043503.20 218.13
-744180.72 -1043552.95 223.62
-744179.82 -1043567.25 226.60
-744179.47 -1043578.90 227.67
-744181.63 -1043554.13 224.87
-744180.53 -1043570.99 228.55
-744180.54 -1043574.89 228.45
-744180.88 -1043586.51 227.06
-744180.95 -1043589.10 226.75
-744182.89 -1043549.97 224.32
-744182.02 -1043565.58 227.18
-744181.44 -1043570.77 229.19
-744181.43 -1043572.05 229.20
-744181.44 -1043574.63 229.10
-744181.94 -1043588.85 227.09
-744182.51 -1043574.40 229.51
-743949.36 -1043367.82 189.26
-743948.08 -1043363.51 189.36
-743947.30 -1043365.14 189.53
-743945.92 -1043364.03 189.63
-743943.35 -1043355.60 189.57
-743945.67 -1043367.32 189.62
-743939.76 -1043358.31 189.48
-743938.48 -1043354.04 189.54
-743940.97 -1043365.62 189.40
-743936.93 -1043367.35 189.36
-743929.54 -1043355.27 189.62
-743930.66 -1043364.50 189.45
-743929.38 -1043360.26 189.51
-743927.82 -1043362.19 189.67
-743926.03 -1043361.94 189.47
-743925.96 -1043367.13 189.42
-743924.69 -1043362.78 189.65
-743924.24 -1043361.45 189.49
-743923.16 -1043364.92 189.38
-743918.98 -1043356.44 189.51
-743920.79 -1043367.35 189.37
-743918.85 -1043368.33 189.69
-743913.44 -1043355.93 189.39
-743915.12 -1043365.87 189.61
-743914.13 -1043366.04 189.69
-743912.15 -1043368.16 189.40
-743910.85 -1043363.93 189.41
-743907.76 -1043358.38 189.66
-743904.19 -1043353.36 189.82
-743892.95 -1043352.41 185.47
-743891.95 -1043352.39 186.09
-743893.55 -1043366.58 188.79
-743892.20 -1043366.51 188.61
-743887.98 -1043362.73 188.73
-743884.67 -1043360.71 188.66
-743882.06 -1043352.31 188.70
-743885.50 -1043365.82 188.72
-743883.44 -1043366.86 188.58
-743878.17 -1043357.05 188.67
-743877.72 -1043353.14 188.69
-743879.04 -1043361.57 188.59
-743883.57 -1043356.76 188.75
-743885.65 -1043353.30 188.78
-743886.99 -1043355.85 188.73
-743888.08 -1043360.16 189.01
-743892.11 -1043360.55 187.02
-743893.88 -1043365.69 188.78
-743902.81 -1043354.21 186.90
-743903.14 -1043356.75 185.77
-743903.71 -1043356.73 187.41
-743903.76 -1043358.09 187.23
-743904.18 -1043360.57 185.78
-743904.15 -1043355.44 189.75
-743905.41 -1043367.06 185.49
-743905.53 -1043357.90 189.71
-743905.84 -1043367.43 188.78
-743906.78 -1043360.62 189.88
-743906.89 -1043361.95 189.53
-743906.90 -1043363.32 189.51
-743906.89 -1043364.75 189.55
-743913.95 -1043356.72 189.51
-743916.70 -1043363.31 189.46
-743918.83 -1043352.01 189.59
-743923.77 -1043356.34 189.64
-743926.48 -1043361.54 189.71
-743931.56 -1043364.31 189.62
-743933.81 -1043354.18 189.69
-743936.67 -1043363.80 189.52
-743941.75 -1043367.79 189.80
-743942.94 -1043361.84 189.44
-743944.17 -1043353.05 189.54
-743944.14 -1043365.59 189.76
-743945.63 -1043358.19 189.37
-743946.98 -1043352.30 189.36
-743947.03 -1043367.57 189.34
-743948.17 -1043365.53 189.38
-743950.86 -1043363.28 189.41
-743950.86 -1043367.43 189.47
-743952.21 -1043352.27 189.45
-743952.21 -1043356.45 189.48
-743958.31 -1043387.30 190.86
-743957.80 -1043398.92 190.63
-743949.44 -1043372.29 189.42
-743948.73 -1043377.08 190.05
-743948.25 -1043375.89 189.54
-743946.08 -1043368.86 189.41
-743945.92 -1043373.66 189.46
-743942.31 -1043369.58 189.98
-743940.55 -1043373.73 189.54
-743950.95 -1043412.73 190.43
-743953.27 -1043427.14 190.44
-743952.83 -1043425.59 190.57
-743952.38 -1043424.19 190.45
-743953.24 -1043432.37 190.61
-743952.78 -1043431.03 190.40
-743951.01 -1043425.11 190.53
-743947.45 -1043413.44 190.49
-743945.67 -1043407.70 190.37
-743935.17 -1043373.46 190.02
-743947.32 -1043418.67 190.25
-743945.57 -1043412.68 190.57
-743949.24 -1043428.31 190.32
-743946.13 -1043418.02 190.43
-743931.18 -1043369.68 189.38
-743952.59 -1043442.32 191.14
-743951.21 -1043438.00 190.85
-743950.31 -1043435.06 190.84
-743958.93 -1043469.25 190.31
-743956.66 -1043461.62 190.54
-743948.97 -1043436.19 190.82
-743948.04 -1043433.51 190.34
-743945.35 -1043424.80 190.15
-743940.92 -1043410.14 190.32
-743929.53 -1043373.03 189.96
-743958.94 -1043474.80 190.25
-743958.02 -1043471.82 190.17
-743949.41 -1043443.05 190.86
-743943.55 -1043424.25 190.26
-743937.75 -1043405.54 189.83
-743926.82 -1043369.96 189.43
-743958.76 -1043477.13 190.38
-743953.26 -1043459.13 190.30
-743944.22 -1043429.54 190.20
-743925.69 -1043369.44 189.33
-743944.33 -1043433.67 190.18
-743935.84 -1043406.15 189.82
-743954.54 -1043472.45 190.13
-743953.15 -1043467.93 190.12
-743956.13 -1043482.45 190.34
-743954.75 -1043477.86 190.42
-743944.71 -1043444.79 190.65
-743942.43 -1043437.73 190.08
-743932.13 -1043404.46 189.46
-743956.90 -1043488.04 190.79
-743920.52 -1043369.80 189.74
-743949.60 -1043468.65 190.02
-743948.22 -1043464.18 189.93
-743942.34 -1043444.52 190.50
-743932.86 -1043414.19 189.64
-743920.14 -1043372.52 189.74
-743949.49 -1043473.32 190.03
-743945.36 -1043459.87 189.94
-743940.36 -1043443.43 190.05
-743931.75 -1043416.28 188.74
-743930.90 -1043413.01 189.41
-743919.06 -1043374.22 189.50
-743952.32 -1043486.99 190.30
-743950.91 -1043482.63 189.95
-743930.85 -1043417.84 188.87
-743916.43 -1043370.03 189.77
-743948.01 -1043479.75 190.30
-743947.53 -1043478.36 190.06
-743942.91 -1043463.34 190.01
-743942.00 -1043460.30 190.10
-743938.80 -1043450.01 189.89
-743928.86 -1043417.90 189.46
-743925.30 -1043406.30 189.44
-743924.42 -1043403.40 189.48
-743913.91 -1043369.16 189.44
-743947.60 -1043483.41 189.91
-743940.68 -1043460.82 189.93
-743928.44 -1043421.09 189.70
-743927.08 -1043416.88 189.40
-743947.16 -1043486.70 189.93
-743945.74 -1043482.23 189.73
-743939.29 -1043461.07 189.90
-743938.84 -1043459.54 189.98
-743927.06 -1043421.39 189.60
-743924.81 -1043414.09 189.56
-743924.36 -1043412.80 189.30
-743938.02 -1043459.67 190.23
-743920.42 -1043402.89 189.48
-743912.08 -1043375.65 189.59
-743911.21 -1043372.84 189.53
-743910.32 -1043370.10 189.33
-743945.04 -1043490.47 190.32
-743921.66 -1043415.27 189.25
-743918.54 -1043405.12 189.27
-743918.12 -1043403.63 189.42
-743914.58 -1043392.11 189.45
-743913.27 -1043387.78 189.52
-743908.47 -1043372.14 189.56
-743907.59 -1043369.34 189.50
-743917.15 -1043405.37 189.23
-743916.72 -1043403.85 189.39
-743912.75 -1043390.88 189.51
-743912.65 -1043391.55 188.16
-743910.99 -1043385.17 189.46
-743931.46 -1043455.25 189.59
-743916.10 -1043405.62 189.23
-743911.69 -1043391.17 189.42
-743941.32 -1043490.07 189.94
-743915.27 -1043406.00 189.29
-743914.86 -1043404.24 189.84
-743910.86 -1043391.53 189.48
-743916.86 -1043415.26 189.23
-743909.33 -1043390.67 189.45
-743907.57 -1043384.91 189.57
-743914.74 -1043412.57 189.23
-743908.00 -1043391.42 188.31
-743907.66 -1043389.39 189.53
-743907.54 -1043390.11 188.09
-743907.22 -1043387.88 189.67
-743906.79 -1043386.46 189.71
-743936.10 -1043485.38 189.44
-743912.78 -1043409.85 189.50
-743906.57 -1043389.72 189.53
-743906.15 -1043388.23 189.66
-743936.49 -1043490.13 189.71
-743934.11 -1043482.74 189.29
-743927.62 -1043461.62 189.44
-743914.41 -1043418.99 189.30
-743912.19 -1043411.56 189.63
-743927.97 -1043466.45 189.33
-743913.36 -1043419.25 189.30
-743912.92 -1043417.81 189.30
-743912.69 -1043420.60 189.64
-743932.96 -1043489.03 189.43
-743927.33 -1043471.03 189.19
-743896.35 -1043378.04 185.53
-743895.50 -1043375.02 185.90
-743895.18 -1043372.89 187.37
-743930.80 -1043490.14 189.73
-743927.01 -1043478.40 189.08
-743926.07 -1043475.41 189.04
-743921.94 -1043461.51 189.82
-743913.70 -1043434.72 190.11
-743895.47 -1043379.31 185.55
-743895.03 -1043377.85 185.59
-743894.58 -1043376.51 185.46
-743894.33 -1043373.96 187.80
-743894.20 -1043374.70 186.27
-743929.73 -1043489.78 189.36
-743924.09 -1043471.73 189.20
-743922.70 -1043467.15 189.33
-743894.85 -1043379.98 185.95
-743894.41 -1043378.50 186.02
-743893.67 -1043374.79 187.83
-743893.32 -1043372.92 188.84
-743893.27 -1043373.25 188.17
-743920.38 -1043462.21 189.60
-743907.56 -1043420.89 189.80
-743906.62 -1043418.33 189.15
-743899.21 -1043396.81 186.05
-743895.61 -1043385.57 185.63
-743895.17 -1043384.16 185.61
-743893.50 -1043377.92 186.78
-743893.11 -1043376.12 187.53
-743905.75 -1043420.02 188.47
-743895.23 -1043388.32 185.63
-743891.92 -1043375.54 188.51
-743925.52 -1043487.63 189.27
-743918.05 -1043463.35 189.65
-743907.98 -1043430.47 190.35
-743925.11 -1043489.99 189.51
-743908.01 -1043434.19 190.71
-743924.24 -1043489.62 189.35
-743919.05 -1043473.05 189.22
-743914.90 -1043459.19 189.97
-743899.05 -1043411.69 185.45
-743887.51 -1043375.38 188.85
-743921.78 -1043489.12 189.25
-743921.31 -1043487.60 189.26
-743918.01 -1043476.96 189.38
-743917.52 -1043475.57 189.14
-743912.44 -1043458.68 189.97
-743885.23 -1043372.36 188.89
-743919.76 -1043486.95 189.12
-743896.87 -1043416.17 185.70
-743888.56 -1043387.36 188.73
-743886.34 -1043380.23 188.75
-743918.91 -1043489.67 189.35
-743913.73 -1043473.00 189.49
-743908.57 -1043456.67 189.33
-743886.70 -1043387.20 188.77
-743913.64 -1043477.08 189.27
-743894.42 -1043418.49 185.50
-743915.87 -1043488.46 189.21
-743908.36 -1043464.18 189.59
-743906.96 -1043459.70 189.61
-743915.17 -1043489.04 189.25
-743909.05 -1043469.34 189.48
-743893.11 -1043421.03 186.06
-743887.37 -1043401.07 188.36
-743915.47 -1043491.85 190.98
-743914.43 -1043489.81 189.25
-743909.23 -1043473.13 189.41
-743886.62 -1043401.80 188.42
-743880.82 -1043383.20 188.56
-743915.14 -1043493.93 191.55
-743914.65 -1043492.58 191.26
-743912.16 -1043486.31 188.97
-743909.80 -1043478.61 189.23
-743912.68 -1043490.96 190.44
-743912.15 -1043490.12 189.31
-743912.44 -1043493.21 191.37
-743911.92 -1043492.19 190.49
-743910.90 -1043489.91 189.16
-743901.48 -1043459.69 189.51
-743911.23 -1043492.85 191.50
-743910.68 -1043492.25 189.91
-743910.16 -1043491.06 189.32
-743900.73 -1043460.93 189.50
-743898.80 -1043455.60 188.39
-743888.45 -1043424.78 185.55
-743877.35 -1043387.24 188.64
-743914.33 -1043505.87 191.75
-743911.93 -1043498.29 191.67
-743910.01 -1043492.31 191.52
-743909.41 -1043492.05 189.27
-743907.50 -1043486.18 188.98
-743898.04 -1043456.52 188.44
-743915.32 -1043512.60 192.02
-743912.41 -1043503.56 191.78
-743908.51 -1043492.12 190.49
-743907.98 -1043491.33 189.26
-743904.16 -1043479.31 189.11
-743898.00 -1043460.15 188.60
-743886.68 -1043426.53 185.47
-743879.61 -1043401.71 188.77
-743912.91 -1043509.12 191.93
-743907.60 -1043492.50 191.65
-743907.03 -1043492.15 189.65
-743906.06 -1043489.38 189.18
-743905.09 -1043486.46 188.99
-743898.45 -1043465.51 188.86
-743896.56 -1043459.71 188.56
-743907.27 -1043495.19 191.48
-743905.24 -1043490.34 189.31
-743894.82 -1043457.67 188.78
-743884.88 -1043428.47 185.56
-743907.37 -1043499.20 191.60
-743903.89 -1043489.97 189.11
-743898.19 -1043471.91 189.13
-743896.29 -1043466.11 188.81
-743878.71 -1043410.44 188.79
-743907.75 -1043504.45 191.69
-743906.79 -1043501.36 191.74
-743904.38 -1043493.94 191.45
-743903.87 -1043492.58 191.13
-743900.90 -1043484.72 189.01
-743896.64 -1043471.23 188.98
-743893.32 -1043460.90 188.76
-743878.09 -1043412.55 188.95
